ply
format ascii 1.0
comment Author: CloudCompare (TELECOM PARISTECH/EDF R&D)
obj_info Generated by CloudCompare!
element vertex 2209
property float x
property float y
property float z
end_header
77.045 25.67 738.11 
77.045 25.77 738.11 
77.042 25.869 738.09 
77.039 25.969 738.06 
77.036 26.068 738.03 
77.032 26.167 738 
77.031 26.267 737.98 
77.029 26.368 737.97 
77.029 26.47 737.96 
77.028 26.57 737.95 
77.028 26.669 737.96 
77.028 26.771 737.95 
77.026 26.871 737.94 
77.024 26.97 737.92 
77.021 27.068 737.89 
77.02 27.169 737.88 
77.018 27.269 737.86 
77.018 27.369 737.85 
77.016 27.47 737.84 
77.016 27.57 737.84 
77.013 27.67 737.81 
77.009 27.769 737.77 
77.007 27.868 737.75 
77.006 27.966 737.74 
77.004 28.065 737.72 
77.068 32.432 738.33 
77.072 32.532 738.37 
77.074 32.632 738.39 
77.076 32.731 738.42 
77.081 32.833 738.47 
77.087 32.935 738.52 
77.091 33.037 738.56 
77.095 33.139 738.59 
77.099 33.241 738.63 
77.103 33.344 738.67 
77.105 33.446 738.69 
77.107 33.549 738.71 
77.112 33.652 738.76 
77.118 33.755 738.82 
77.123 33.858 738.87 
77.127 33.961 738.91 
77.133 34.064 738.96 
77.137 34.166 739 
77.141 34.269 739.04 
77.148 34.373 739.1 
77.153 34.477 739.15 
77.157 34.579 739.18 
77.161 34.68 739.22 
77.167 34.782 739.28 
77.175 34.885 739.36 
77.184 34.987 739.45 
77.195 35.09 739.55 
77.279 36.555 740.36 
77.284 36.658 740.4 
77.289 36.76 740.45 
77.294 36.861 740.5 
77.301 36.964 740.57 
77.308 37.068 740.64 
77.316 37.172 740.71 
77.323 37.276 740.78 
77.529 39.513 742.75 
77.544 39.62 742.9 
77.558 39.727 743.03 
77.572 39.835 743.17 
77.586 39.942 743.3 
77.599 40.049 743.43 
77.614 40.157 743.57 
77.627 40.265 743.69 
77.643 40.376 743.85 
77.661 40.488 744.02 
77.68 40.599 744.2 
77.696 40.708 744.36 
77.71 40.815 744.49 
77.728 40.926 744.66 
77.747 41.036 744.84 
77.766 41.145 745.02 
77.717 16.837 743.58 
77.704 16.934 743.46 
77.69 17.031 743.32 
77.678 17.128 743.21 
77.667 17.227 743.1 
77.654 17.324 742.98 
77.641 17.422 742.85 
77.631 17.522 742.76 
77.622 17.621 742.67 
77.608 17.718 742.54 
77.595 17.815 742.42 
77.584 17.912 742.31 
77.574 18.009 742.21 
77.564 18.104 742.12 
77.46 19.411 741.12 
77.45 19.509 741.03 
77.441 19.607 740.94 
77.431 19.704 740.84 
77.422 19.802 740.76 
77.415 19.899 740.69 
77.41 19.999 740.64 
77.401 20.097 740.56 
77.391 20.195 740.47 
77.385 20.294 740.4 
77.379 20.394 740.35 
77.372 20.493 740.28 
77.366 20.593 740.22 
77.359 20.692 740.16 
77.351 20.791 740.08 
77.344 20.89 740.01 
77.34 20.989 739.98 
77.334 21.088 739.92 
77.328 21.188 739.86 
77.323 21.287 739.81 
77.317 21.385 739.76 
77.309 21.485 739.68 
77.303 21.584 739.62 
77.297 21.684 739.57 
77.294 21.785 739.54 
77.288 21.884 739.48 
77.283 21.982 739.43 
77.276 22.08 739.36 
77.271 22.181 739.32 
77.266 22.28 739.26 
77.261 22.378 739.22 
77.257 22.479 739.18 
77.251 22.579 739.13 
77.245 22.678 739.07 
77.241 22.778 739.03 
77.238 22.878 739 
77.234 22.976 738.96 
77.229 23.074 738.91 
77.224 23.174 738.86 
77.222 23.274 738.85 
77.217 23.374 738.8 
77.214 23.473 738.77 
77.21 23.573 738.73 
77.207 23.673 738.7 
77.202 23.772 738.65 
77.197 23.872 738.6 
77.193 23.971 738.57 
77.189 24.071 738.53 
77.187 24.171 738.51 
77.184 24.271 738.48 
77.183 24.371 738.47 
77.18 24.471 738.45 
77.177 24.572 738.41 
77.171 24.671 738.36 
77.17 24.772 738.35 
77.17 24.871 738.35 
77.166 24.97 738.31 
77.161 25.068 738.26 
77.159 25.168 738.24 
77.158 25.269 738.23 
77.152 25.369 738.18 
77.15 25.469 738.16 
77.149 25.57 738.15 
77.149 25.67 738.14 
77.149 25.771 738.15 
77.145 25.87 738.11 
77.142 25.969 738.09 
77.14 26.068 738.06 
77.138 26.169 738.04 
77.135 26.268 738.01 
77.133 26.369 738 
77.132 26.47 737.99 
77.132 26.571 737.99 
77.132 26.671 737.98 
77.132 26.771 737.98 
77.13 26.871 737.97 
77.128 26.971 737.95 
77.125 27.07 737.92 
77.121 27.169 737.88 
77.12 27.269 737.88 
77.12 27.37 737.87 
77.119 27.47 737.86 
77.119 27.571 737.86 
77.116 27.67 737.83 
77.112 27.769 737.8 
77.109 27.867 737.76 
77.108 27.966 737.75 
77.173 32.434 738.37 
77.175 32.533 738.4 
77.177 32.632 738.42 
77.181 32.733 738.45 
77.187 32.835 738.51 
77.191 32.937 738.55 
77.196 33.038 738.59 
77.2 33.141 738.64 
77.204 33.244 738.67 
77.207 33.345 738.7 
77.21 33.448 738.73 
77.212 33.551 738.75 
77.217 33.654 738.8 
77.222 33.757 738.85 
77.226 33.859 738.89 
77.23 33.961 738.92 
77.236 34.065 738.98 
77.241 34.168 739.02 
77.245 34.27 739.07 
77.25 34.374 739.12 
77.256 34.477 739.17 
77.26 34.579 739.21 
77.265 34.682 739.26 
77.272 34.784 739.32 
77.28 34.887 739.4 
77.29 34.991 739.49 
77.301 35.096 739.6 
77.373 36.349 740.29 
77.376 36.452 740.32 
77.38 36.555 740.36 
77.386 36.658 740.42 
77.392 36.761 740.48 
77.397 36.863 740.52 
77.402 36.964 740.57 
77.409 37.067 740.63 
77.416 37.171 740.7 
77.65 39.623 742.94 
77.662 39.729 743.06 
77.674 39.835 743.17 
77.689 39.944 743.32 
77.705 40.052 743.47 
77.72 40.16 743.61 
77.733 40.268 743.74 
77.751 40.38 743.91 
77.767 40.489 744.06 
77.783 40.6 744.22 
77.801 40.71 744.38 
77.817 40.819 744.54 
77.835 40.929 744.71 
77.853 41.038 744.89 
77.872 41.148 745.07 
77.834 16.742 743.73 
77.822 16.838 743.61 
77.81 16.935 743.5 
77.796 17.032 743.37 
77.781 17.129 743.23 
77.769 17.226 743.11 
77.759 17.325 743.02 
77.75 17.423 742.93 
77.737 17.522 742.81 
77.725 17.622 742.69 
77.713 17.719 742.57 
77.701 17.816 742.46 
77.688 17.913 742.34 
77.677 18.009 742.23 
77.669 18.105 742.15 
77.568 19.312 741.19 
77.559 19.409 741.1 
77.55 19.507 741.01 
77.542 19.606 740.94 
77.535 19.705 740.88 
77.529 19.803 740.81 
77.52 19.9 740.73 
77.511 19.999 740.64 
77.502 20.098 740.56 
77.496 20.197 740.5 
77.487 20.295 740.42 
77.48 20.394 740.35 
77.473 20.493 740.29 
77.466 20.592 740.21 
77.46 20.692 740.15 
77.454 20.791 740.1 
77.448 20.89 740.04 
77.444 20.99 740 
77.438 21.089 739.95 
77.433 21.188 739.9 
77.427 21.287 739.84 
77.422 21.386 739.79 
77.414 21.486 739.71 
77.405 21.585 739.63 
77.402 21.685 739.6 
77.396 21.785 739.54 
77.391 21.884 739.5 
77.385 21.982 739.44 
77.38 22.081 739.39 
77.378 22.181 739.37 
77.37 22.281 739.3 
77.367 22.381 739.27 
77.362 22.48 739.23 
77.357 22.581 739.17 
77.351 22.68 739.11 
77.345 22.779 739.05 
77.341 22.877 739.02 
77.336 22.976 738.98 
77.333 23.075 738.94 
77.328 23.175 738.89 
77.326 23.276 738.87 
77.32 23.375 738.82 
77.314 23.473 738.76 
77.311 23.574 738.74 
77.308 23.673 738.71 
77.303 23.772 738.65 
77.297 23.872 738.6 
77.296 23.972 738.6 
77.295 24.072 738.58 
77.29 24.172 738.54 
77.287 24.271 738.5 
77.285 24.372 738.49 
77.282 24.471 738.45 
77.277 24.57 738.41 
77.271 24.67 738.36 
77.272 24.772 738.36 
77.273 24.873 738.37 
77.27 24.971 738.34 
77.266 25.07 738.3 
77.262 25.17 738.27 
77.26 25.27 738.25 
77.257 25.37 738.22 
77.256 25.471 738.21 
77.255 25.572 738.2 
77.252 25.671 738.17 
77.251 25.771 738.16 
77.249 25.871 738.14 
77.246 25.971 738.11 
77.244 26.07 738.09 
77.244 26.171 738.09 
77.241 26.27 738.07 
77.237 26.37 738.03 
77.237 26.471 738.03 
77.236 26.572 738.01 
77.236 26.672 738.01 
77.235 26.772 738.01 
77.233 26.871 737.98 
77.23 26.971 737.96 
77.228 27.071 737.95 
77.228 27.171 737.94 
77.227 27.271 737.93 
77.226 27.371 737.92 
77.223 27.471 737.89 
77.222 27.571 737.88 
77.219 27.671 737.85 
77.216 27.769 737.83 
77.212 27.867 737.79 
77.28 32.436 738.43 
77.28 32.535 738.44 
77.282 32.634 738.46 
77.286 32.735 738.49 
77.29 32.836 738.54 
77.294 32.938 738.57 
77.299 33.04 738.62 
77.304 33.143 738.67 
77.308 33.245 738.7 
77.311 33.347 738.73 
77.315 33.45 738.77 
77.318 33.553 738.8 
77.321 33.655 738.83 
77.324 33.758 738.86 
77.328 33.86 738.9 
77.332 33.962 738.93 
77.338 34.065 738.99 
77.344 34.169 739.05 
77.349 34.272 739.09 
77.353 34.375 739.14 
77.358 34.478 739.18 
77.365 34.581 739.25 
77.37 34.684 739.3 
77.376 34.786 739.35 
77.385 34.89 739.44 
77.394 34.994 739.53 
77.403 35.098 739.61 
77.434 35.623 739.91 
77.44 35.726 739.97 
77.446 35.83 740.03 
77.451 35.933 740.08 
77.456 36.037 740.12 
77.461 36.14 740.17 
77.467 36.244 740.22 
77.472 36.348 740.27 
77.475 36.451 740.3 
77.48 36.554 740.35 
77.488 36.658 740.43 
77.495 36.761 740.49 
77.499 36.863 740.53 
77.504 36.965 740.58 
77.51 37.067 740.64 
77.516 37.17 740.7 
77.754 39.624 742.97 
77.767 39.73 743.09 
77.778 39.836 743.19 
77.794 39.946 743.35 
77.811 40.054 743.51 
77.826 40.163 743.66 
77.838 40.27 743.77 
77.855 40.381 743.93 
77.871 40.49 744.09 
77.887 40.6 744.24 
77.903 40.71 744.39 
77.921 40.82 744.57 
77.938 40.93 744.73 
77.958 41.04 744.92 
77.977 41.15 745.1 
77.938 16.741 743.76 
77.926 16.837 743.64 
77.913 16.934 743.52 
77.901 17.032 743.4 
77.886 17.129 743.26 
77.873 17.227 743.13 
77.863 17.325 743.04 
77.853 17.424 742.94 
77.842 17.523 742.84 
77.83 17.622 742.73 
77.818 17.72 742.61 
77.805 17.817 742.49 
77.791 17.913 742.35 
77.78 18.009 742.24 
77.657 19.408 741.07 
77.651 19.506 741.01 
77.644 19.605 740.95 
77.639 19.705 740.9 
77.633 19.804 740.85 
77.626 19.902 740.77 
77.617 20 740.7 
77.607 20.098 740.59 
77.599 20.198 740.52 
77.591 20.297 740.44 
77.584 20.395 740.38 
77.577 20.494 740.31 
77.569 20.593 740.24 
77.563 20.693 740.18 
77.559 20.792 740.14 
77.553 20.891 740.08 
77.545 20.991 740.01 
77.537 21.089 739.93 
77.532 21.188 739.88 
77.527 21.287 739.83 
77.523 21.387 739.8 
77.516 21.487 739.73 
77.508 21.586 739.65 
77.502 21.685 739.59 
77.497 21.785 739.55 
77.494 21.885 739.52 
77.488 21.983 739.46 
77.483 22.082 739.41 
77.476 22.181 739.35 
77.473 22.281 739.32 
77.469 22.381 739.28 
77.465 22.481 739.24 
77.459 22.581 739.19 
77.454 22.68 739.14 
77.449 22.78 739.09 
77.447 22.879 739.07 
77.442 22.978 739.03 
77.438 23.077 738.98 
77.432 23.176 738.93 
77.426 23.276 738.87 
77.422 23.375 738.83 
77.418 23.475 738.79 
77.414 23.574 738.75 
77.413 23.675 738.75 
77.405 23.773 738.67 
77.4 23.873 738.62 
77.4 23.974 738.62 
77.397 24.072 738.6 
77.395 24.172 738.58 
77.391 24.271 738.53 
77.387 24.371 738.5 
77.385 24.471 738.48 
77.381 24.571 738.44 
77.376 24.671 738.39 
77.377 24.773 738.4 
77.376 24.873 738.39 
77.373 24.972 738.36 
77.369 25.071 738.32 
77.366 25.171 738.29 
77.362 25.271 738.26 
77.362 25.372 738.26 
77.36 25.472 738.24 
77.358 25.572 738.22 
77.355 25.672 738.19 
77.354 25.772 738.18 
77.35 25.871 738.15 
77.35 25.972 738.14 
77.348 26.072 738.12 
77.346 26.172 738.11 
77.345 26.272 738.1 
77.341 26.372 738.06 
77.341 26.472 738.05 
77.34 26.573 738.05 
77.338 26.672 738.03 
77.337 26.772 738.02 
77.334 26.871 737.99 
77.333 26.97 737.98 
77.33 27.071 737.95 
77.332 27.172 737.97 
77.331 27.272 737.96 
77.329 27.371 737.95 
77.326 27.47 737.92 
77.325 27.571 737.91 
77.322 27.67 737.87 
77.317 27.768 737.83 
77.384 32.437 738.46 
77.385 32.536 738.47 
77.386 32.636 738.49 
77.388 32.736 738.51 
77.393 32.837 738.55 
77.398 32.94 738.61 
77.403 33.041 738.65 
77.407 33.143 738.69 
77.411 33.246 738.73 
77.415 33.349 738.77 
77.418 33.451 738.79 
77.42 33.553 738.82 
77.424 33.656 738.85 
77.428 33.759 738.89 
77.432 33.861 738.93 
77.436 33.963 738.96 
77.442 34.066 739.02 
77.448 34.17 739.08 
77.452 34.273 739.12 
77.457 34.375 739.16 
77.463 34.479 739.22 
77.469 34.583 739.28 
77.474 34.685 739.33 
77.479 34.788 739.37 
77.487 34.892 739.45 
77.496 34.995 739.54 
77.503 35.099 739.61 
77.51 35.204 739.67 
77.515 35.309 739.72 
77.523 35.415 739.79 
77.529 35.519 739.85 
77.533 35.622 739.9 
77.54 35.726 739.96 
77.547 35.829 740.02 
77.552 35.932 740.07 
77.556 36.035 740.11 
77.561 36.139 740.16 
77.566 36.242 740.21 
77.571 36.346 740.25 
77.576 36.45 740.3 
77.582 36.554 740.36 
77.591 36.658 740.44 
77.597 36.762 740.5 
77.602 36.864 740.55 
77.606 36.966 740.59 
77.612 37.067 740.65 
77.861 39.627 743.02 
77.873 39.733 743.14 
77.887 39.84 743.27 
77.901 39.948 743.4 
77.916 40.056 743.55 
77.931 40.164 743.69 
77.942 40.271 743.79 
77.959 40.381 743.96 
77.976 40.492 744.11 
77.991 40.601 744.26 
78.007 40.711 744.42 
78.024 40.82 744.58 
78.042 40.931 744.75 
78.06 41.04 744.93 
78.079 41.15 745.11 
78.042 16.741 743.78 
78.028 16.837 743.65 
78.015 16.934 743.53 
78.002 17.031 743.4 
77.988 17.129 743.27 
77.975 17.227 743.14 
77.965 17.326 743.05 
77.955 17.424 742.96 
77.946 17.524 742.86 
77.936 17.624 742.77 
77.922 17.72 742.64 
77.91 17.817 742.53 
77.897 17.914 742.4 
77.884 18.009 742.28 
77.763 19.41 741.12 
77.754 19.507 741.04 
77.747 19.605 740.97 
77.738 19.704 740.88 
77.733 19.803 740.83 
77.723 19.902 740.74 
77.715 19.999 740.66 
77.708 20.098 740.59 
77.701 20.197 740.53 
77.695 20.296 740.47 
77.688 20.395 740.41 
77.682 20.495 740.35 
77.675 20.595 740.28 
77.668 20.695 740.22 
77.662 20.794 740.16 
77.657 20.893 740.11 
77.649 20.991 740.03 
77.642 21.09 739.97 
77.635 21.188 739.9 
77.63 21.288 739.85 
77.625 21.387 739.8 
77.619 21.488 739.75 
77.612 21.586 739.68 
77.607 21.686 739.63 
77.6 21.785 739.56 
77.595 21.884 739.51 
77.588 21.983 739.46 
77.583 22.082 739.4 
77.579 22.182 739.36 
77.576 22.282 739.34 
77.571 22.381 739.29 
77.566 22.481 739.24 
77.561 22.581 739.19 
77.557 22.68 739.16 
77.553 22.779 739.12 
77.549 22.879 739.08 
77.545 22.979 739.04 
77.539 23.077 738.99 
77.535 23.178 738.95 
77.53 23.277 738.9 
77.525 23.376 738.86 
77.521 23.476 738.82 
77.52 23.576 738.81 
77.517 23.677 738.77 
77.51 23.775 738.71 
77.507 23.875 738.68 
77.506 23.975 738.67 
77.5 24.073 738.62 
77.498 24.173 738.6 
77.493 24.272 738.55 
77.491 24.372 738.53 
77.488 24.472 738.5 
77.486 24.573 738.48 
77.483 24.673 738.45 
77.48 24.773 738.42 
77.479 24.873 738.42 
77.476 24.973 738.39 
77.472 25.072 738.35 
77.468 25.171 738.31 
77.466 25.272 738.29 
77.465 25.373 738.28 
77.464 25.473 738.27 
77.463 25.573 738.26 
77.46 25.672 738.23 
77.456 25.771 738.19 
77.453 25.871 738.16 
77.451 25.972 738.15 
77.451 26.072 738.14 
77.448 26.172 738.12 
77.448 26.273 738.12 
77.444 26.372 738.08 
77.443 26.472 738.07 
77.443 26.573 738.07 
77.44 26.672 738.04 
77.438 26.772 738.03 
77.436 26.871 738 
77.434 26.97 737.98 
77.432 27.071 737.96 
77.432 27.171 737.97 
77.432 27.272 737.97 
77.43 27.37 737.95 
77.426 27.469 737.91 
77.424 27.57 737.89 
77.42 27.668 737.85 
77.485 32.437 738.47 
77.489 32.537 738.51 
77.491 32.637 738.53 
77.493 32.738 738.55 
77.497 32.839 738.59 
77.503 32.941 738.64 
77.507 33.043 738.68 
77.51 33.145 738.71 
77.515 33.247 738.75 
77.518 33.35 738.79 
77.521 33.452 738.82 
77.524 33.554 738.84 
77.527 33.656 738.88 
77.531 33.759 738.91 
77.536 33.862 738.96 
77.54 33.965 739 
77.544 34.067 739.04 
77.549 34.17 739.09 
77.555 34.274 739.13 
77.56 34.376 739.19 
77.567 34.48 739.25 
77.573 34.584 739.31 
77.577 34.687 739.35 
77.582 34.789 739.39 
77.589 34.892 739.46 
77.597 34.996 739.54 
77.604 35.1 739.6 
77.609 35.204 739.65 
77.615 35.309 739.71 
77.621 35.414 739.77 
77.628 35.518 739.83 
77.633 35.621 739.89 
77.64 35.725 739.95 
77.646 35.828 740.01 
77.65 35.93 740.04 
77.655 36.034 740.09 
77.661 36.137 740.15 
77.667 36.241 740.2 
77.672 36.345 740.25 
77.677 36.449 740.31 
77.684 36.554 740.37 
77.692 36.658 740.44 
77.699 36.762 740.51 
77.703 36.865 740.55 
77.708 36.966 740.6 
77.714 37.067 740.65 
77.968 39.629 743.08 
77.98 39.735 743.19 
77.993 39.842 743.31 
78.005 39.949 743.43 
78.018 40.056 743.55 
78.034 40.164 743.7 
78.048 40.273 743.84 
78.066 40.383 744.01 
78.081 40.493 744.15 
78.094 40.602 744.28 
78.113 40.712 744.45 
78.13 40.822 744.62 
78.146 40.932 744.77 
78.163 41.041 744.93 
78.181 41.15 745.1 
78.148 16.742 743.82 
78.132 16.838 743.67 
78.12 16.935 743.56 
78.109 17.033 743.45 
78.095 17.13 743.32 
78.081 17.228 743.19 
78.072 17.327 743.1 
78.059 17.426 742.98 
78.046 17.523 742.85 
78.036 17.623 742.76 
78.025 17.721 742.65 
78.012 17.817 742.53 
78 17.913 742.41 
77.99 18.008 742.32 
77.867 19.411 741.15 
77.86 19.508 741.08 
77.853 19.606 741.01 
77.843 19.705 740.92 
77.836 19.803 740.85 
77.825 19.901 740.74 
77.817 19.999 740.67 
77.811 20.098 740.61 
77.803 20.196 740.54 
77.797 20.296 740.49 
77.79 20.395 740.41 
77.785 20.496 740.36 
77.777 20.596 740.29 
77.769 20.695 740.22 
77.764 20.794 740.17 
77.758 20.894 740.11 
77.752 20.992 740.06 
77.746 21.091 739.99 
77.737 21.189 739.91 
77.733 21.289 739.88 
77.728 21.388 739.82 
77.722 21.488 739.77 
77.714 21.587 739.69 
77.71 21.686 739.66 
77.707 21.786 739.62 
77.701 21.885 739.57 
77.694 21.985 739.5 
77.691 22.084 739.47 
77.685 22.184 739.42 
77.68 22.283 739.37 
77.673 22.381 739.3 
77.668 22.482 739.26 
77.662 22.58 739.19 
77.658 22.68 739.16 
77.655 22.78 739.13 
77.652 22.88 739.1 
77.646 22.979 739.04 
77.641 23.077 739 
77.638 23.179 738.97 
77.633 23.278 738.93 
77.63 23.378 738.9 
77.627 23.478 738.86 
77.623 23.577 738.83 
77.619 23.677 738.79 
77.614 23.776 738.74 
77.611 23.875 738.71 
77.609 23.975 738.69 
77.603 24.074 738.63 
77.598 24.173 738.59 
77.596 24.272 738.57 
77.592 24.372 738.53 
77.591 24.473 738.52 
77.589 24.574 738.5 
77.585 24.673 738.46 
77.583 24.774 738.45 
77.58 24.874 738.42 
77.579 24.973 738.4 
77.575 25.072 738.37 
77.572 25.172 738.34 
77.571 25.273 738.33 
77.569 25.373 738.31 
77.568 25.474 738.3 
77.566 25.574 738.29 
77.564 25.673 738.26 
77.559 25.772 738.22 
77.557 25.872 738.2 
77.556 25.972 738.19 
77.555 26.072 738.18 
77.552 26.173 738.15 
77.552 26.274 738.15 
77.549 26.374 738.12 
77.547 26.474 738.11 
77.546 26.574 738.1 
77.543 26.673 738.06 
77.54 26.772 738.04 
77.539 26.873 738.03 
77.537 26.971 738.01 
77.535 27.071 737.99 
77.535 27.171 737.99 
77.533 27.271 737.97 
77.531 27.37 737.95 
77.527 27.469 737.91 
77.523 27.568 737.88 
77.586 32.438 738.48 
77.591 32.538 738.52 
77.594 32.638 738.55 
77.597 32.739 738.58 
77.602 32.841 738.62 
77.606 32.942 738.66 
77.609 33.043 738.69 
77.614 33.146 738.74 
77.617 33.248 738.77 
77.62 33.35 738.8 
77.623 33.452 738.83 
77.627 33.555 738.87 
77.63 33.657 738.9 
77.633 33.759 738.92 
77.638 33.862 738.97 
77.642 33.965 739.01 
77.646 34.068 739.05 
77.651 34.171 739.09 
77.656 34.273 739.14 
77.662 34.377 739.2 
77.669 34.481 739.27 
77.675 34.585 739.32 
77.68 34.688 739.37 
77.686 34.791 739.42 
77.692 34.894 739.49 
77.7 34.998 739.56 
77.705 35.101 739.61 
77.71 35.205 739.65 
77.716 35.309 739.71 
77.722 35.413 739.77 
77.727 35.517 739.82 
77.734 35.62 739.88 
77.74 35.724 739.94 
77.745 35.827 739.98 
77.748 35.929 740.02 
77.754 36.032 740.07 
77.761 36.135 740.14 
77.767 36.24 740.19 
77.772 36.344 740.25 
77.778 36.449 740.3 
77.785 36.554 740.37 
77.792 36.658 740.44 
77.8 36.762 740.51 
77.806 36.865 740.57 
77.811 36.966 740.61 
77.816 37.066 740.66 
78.075 39.631 743.13 
78.086 39.737 743.23 
78.095 39.842 743.31 
78.107 39.949 743.43 
78.121 40.056 743.56 
78.136 40.164 743.71 
78.153 40.274 743.87 
78.171 40.385 744.04 
78.185 40.494 744.18 
78.2 40.604 744.32 
78.217 40.714 744.48 
78.237 40.826 744.68 
78.252 40.935 744.81 
78.266 41.043 744.95 
78.281 41.149 745.09 
78.248 16.742 743.81 
78.233 16.838 743.66 
78.224 16.937 743.58 
78.214 17.035 743.49 
78.2 17.132 743.36 
78.187 17.23 743.23 
78.175 17.328 743.11 
78.164 17.426 743.01 
78.15 17.524 742.88 
78.139 17.623 742.77 
78.128 17.721 742.67 
78.117 17.818 742.56 
78.106 17.913 742.46 
78.099 18.008 742.39 
77.969 19.412 741.15 
77.962 19.508 741.09 
77.954 19.605 741.01 
77.947 19.704 740.95 
77.938 19.803 740.86 
77.927 19.902 740.76 
77.92 20 740.69 
77.913 20.099 740.63 
77.905 20.197 740.55 
77.898 20.295 740.48 
77.893 20.395 740.43 
77.887 20.496 740.38 
77.88 20.596 740.31 
77.87 20.694 740.21 
77.865 20.794 740.17 
77.86 20.893 740.12 
77.853 20.992 740.06 
77.848 21.091 740 
77.842 21.189 739.95 
77.835 21.289 739.89 
77.83 21.388 739.83 
77.825 21.488 739.79 
77.82 21.588 739.74 
77.814 21.687 739.68 
77.808 21.787 739.62 
77.802 21.886 739.57 
77.797 21.985 739.52 
77.794 22.085 739.49 
77.788 22.184 739.44 
77.781 22.282 739.37 
77.774 22.382 739.3 
77.769 22.482 739.26 
77.765 22.582 739.22 
77.761 22.682 739.18 
77.758 22.781 739.15 
77.755 22.881 739.13 
77.749 22.979 739.06 
77.743 23.078 739.01 
77.741 23.178 738.99 
77.737 23.278 738.95 
77.733 23.379 738.91 
77.73 23.479 738.88 
77.725 23.578 738.84 
77.72 23.677 738.79 
77.717 23.777 738.76 
77.713 23.876 738.72 
77.71 23.975 738.7 
77.706 24.075 738.66 
77.702 24.173 738.61 
77.697 24.272 738.57 
77.695 24.373 738.55 
77.694 24.474 738.55 
77.691 24.575 738.51 
77.689 24.674 738.49 
77.685 24.775 738.46 
77.683 24.874 738.44 
77.679 24.973 738.4 
77.677 25.073 738.38 
77.677 25.173 738.38 
77.674 25.273 738.36 
77.673 25.374 738.34 
77.672 25.474 738.34 
77.67 25.575 738.32 
77.665 25.674 738.27 
77.663 25.774 738.25 
77.661 25.874 738.23 
77.66 25.974 738.22 
77.658 26.073 738.2 
77.656 26.173 738.18 
77.656 26.275 738.18 
77.652 26.374 738.15 
77.651 26.475 738.13 
77.649 26.574 738.11 
77.646 26.674 738.09 
77.646 26.774 738.08 
77.642 26.873 738.05 
77.64 26.972 738.03 
77.637 27.071 738 
77.635 27.17 737.99 
77.633 27.27 737.96 
77.631 27.37 737.94 
77.628 27.468 737.92 
77.69 32.439 738.5 
77.693 32.538 738.54 
77.695 32.638 738.56 
77.7 32.74 738.6 
77.705 32.841 738.65 
77.709 32.943 738.68 
77.712 33.044 738.71 
77.716 33.146 738.75 
77.719 33.249 738.78 
77.723 33.351 738.82 
77.726 33.453 738.85 
77.73 33.555 738.88 
77.734 33.658 738.92 
77.737 33.761 738.95 
77.741 33.863 738.99 
77.745 33.966 739.03 
77.75 34.07 739.08 
77.754 34.172 739.11 
77.758 34.274 739.15 
77.764 34.377 739.21 
77.772 34.482 739.28 
77.779 34.586 739.35 
77.784 34.689 739.4 
77.79 34.792 739.45 
77.797 34.896 739.53 
77.804 35 739.59 
77.807 35.102 739.62 
77.812 35.205 739.66 
77.818 35.31 739.73 
77.824 35.414 739.78 
77.829 35.517 739.83 
77.835 35.62 739.89 
77.84 35.724 739.93 
77.845 35.827 739.98 
77.849 35.929 740.01 
77.854 36.032 740.06 
77.86 36.134 740.12 
77.866 36.239 740.18 
77.872 36.344 740.24 
77.878 36.449 740.29 
77.887 36.554 740.38 
77.896 36.659 740.46 
77.904 36.763 740.54 
77.91 36.865 740.59 
77.915 36.966 740.64 
77.92 37.066 740.7 
78.183 39.635 743.19 
78.19 39.738 743.26 
78.197 39.842 743.33 
78.213 39.952 743.48 
78.228 40.06 743.62 
78.242 40.166 743.75 
78.255 40.274 743.88 
78.275 40.387 744.07 
78.291 40.496 744.22 
78.305 40.606 744.36 
78.321 40.716 744.51 
78.341 40.828 744.7 
78.358 40.937 744.85 
78.372 41.044 744.99 
78.385 41.151 745.11 
78.353 16.742 743.84 
78.338 16.839 743.7 
78.328 16.937 743.6 
78.317 17.034 743.5 
78.303 17.132 743.37 
78.292 17.23 743.26 
78.283 17.329 743.18 
78.271 17.427 743.07 
78.257 17.525 742.93 
78.245 17.624 742.82 
78.234 17.722 742.71 
78.221 17.818 742.59 
78.209 17.914 742.48 
78.202 18.01 742.41 
78.083 19.316 741.28 
78.073 19.412 741.18 
78.065 19.508 741.11 
78.058 19.606 741.04 
78.05 19.704 740.96 
78.041 19.803 740.88 
78.033 19.903 740.8 
78.024 20.002 740.72 
78.017 20.099 740.65 
78.011 20.197 740.6 
78.003 20.296 740.52 
77.996 20.396 740.45 
77.988 20.496 740.38 
77.98 20.596 740.31 
77.971 20.694 740.22 
77.967 20.794 740.18 
77.964 20.893 740.15 
77.957 20.992 740.09 
77.95 21.091 740.02 
77.943 21.189 739.96 
77.935 21.288 739.87 
77.93 21.387 739.83 
77.926 21.488 739.78 
77.922 21.588 739.75 
77.918 21.688 739.71 
77.911 21.787 739.65 
77.906 21.886 739.59 
77.9 21.986 739.54 
77.895 22.084 739.49 
77.89 22.184 739.45 
77.885 22.283 739.4 
77.879 22.383 739.34 
77.875 22.484 739.3 
77.87 22.583 739.26 
77.866 22.682 739.22 
77.861 22.782 739.17 
77.855 22.88 739.12 
77.851 22.979 739.07 
77.846 23.079 739.03 
77.841 23.178 738.98 
77.84 23.278 738.97 
77.838 23.379 738.95 
77.833 23.479 738.9 
77.828 23.579 738.86 
77.824 23.678 738.82 
77.821 23.778 738.79 
77.816 23.877 738.75 
77.813 23.976 738.71 
77.81 24.075 738.69 
77.806 24.175 738.65 
77.801 24.274 738.6 
77.798 24.374 738.58 
77.796 24.475 738.56 
77.794 24.576 738.54 
77.793 24.677 738.53 
77.787 24.775 738.47 
77.785 24.875 738.45 
77.782 24.974 738.42 
77.78 25.074 738.4 
77.778 25.173 738.38 
77.777 25.274 738.37 
77.774 25.374 738.35 
77.774 25.474 738.35 
77.771 25.575 738.32 
77.767 25.674 738.28 
77.765 25.775 738.26 
77.764 25.874 738.25 
77.764 25.975 738.25 
77.764 26.075 738.25 
77.759 26.174 738.21 
77.757 26.275 738.18 
77.754 26.374 738.16 
77.752 26.475 738.14 
77.749 26.574 738.11 
77.748 26.675 738.1 
77.746 26.774 738.08 
77.744 26.873 738.06 
77.74 26.971 738.03 
77.737 27.07 738 
77.738 27.171 738 
77.735 27.27 737.98 
77.732 27.368 737.95 
77.795 32.44 738.54 
77.797 32.539 738.56 
77.798 32.639 738.57 
77.802 32.74 738.61 
77.808 32.842 738.67 
77.813 32.944 738.71 
77.816 33.045 738.74 
77.819 33.148 738.77 
77.823 33.251 738.81 
77.828 33.353 738.86 
77.832 33.455 738.9 
77.836 33.557 738.93 
77.838 33.66 738.96 
77.841 33.763 738.99 
77.846 33.865 739.03 
77.851 33.969 739.07 
77.856 34.072 739.12 
77.859 34.175 739.16 
77.862 34.276 739.18 
77.867 34.379 739.23 
77.874 34.483 739.3 
77.882 34.587 739.37 
77.887 34.69 739.42 
77.894 34.793 739.48 
77.901 34.897 739.55 
77.906 35.001 739.6 
77.91 35.104 739.64 
77.915 35.206 739.68 
77.921 35.31 739.74 
77.927 35.414 739.8 
77.932 35.517 739.84 
77.937 35.621 739.89 
77.943 35.724 739.95 
77.948 35.828 740 
77.952 35.93 740.04 
77.956 36.032 740.07 
77.959 36.133 740.11 
77.965 36.238 740.16 
77.972 36.344 740.22 
77.978 36.45 740.28 
77.989 36.556 740.39 
78 36.661 740.49 
78.009 36.765 740.58 
78.015 36.867 740.64 
78.021 36.968 740.69 
78.026 37.068 740.74 
78.289 39.637 743.24 
78.296 39.74 743.3 
78.305 39.846 743.39 
78.32 39.954 743.53 
78.335 40.063 743.67 
78.347 40.169 743.79 
78.361 40.277 743.92 
78.38 40.389 744.1 
78.397 40.5 744.26 
78.41 40.607 744.38 
78.425 40.717 744.53 
78.445 40.829 744.72 
78.462 40.939 744.88 
78.478 41.047 745.03 
78.491 41.154 745.15 
78.459 16.743 743.89 
78.445 16.839 743.75 
78.429 16.936 743.6 
78.416 17.032 743.48 
78.407 17.131 743.39 
78.396 17.23 743.29 
78.384 17.329 743.17 
78.374 17.427 743.08 
78.362 17.525 742.96 
78.348 17.623 742.83 
78.336 17.721 742.72 
78.325 17.819 742.62 
78.315 17.916 742.52 
78.306 18.011 742.43 
78.193 19.219 741.36 
78.184 19.314 741.28 
78.178 19.411 741.22 
78.169 19.508 741.13 
78.16 19.606 741.05 
78.154 19.705 740.99 
78.146 19.804 740.92 
78.138 19.903 740.84 
78.127 20.001 740.74 
78.12 20.1 740.67 
78.113 20.197 740.61 
78.107 20.297 740.55 
78.098 20.397 740.46 
78.092 20.497 740.41 
78.086 20.597 740.34 
78.078 20.695 740.27 
78.072 20.795 740.22 
78.067 20.894 740.17 
78.061 20.992 740.11 
78.054 21.091 740.05 
78.047 21.189 739.98 
78.039 21.289 739.9 
78.032 21.388 739.83 
78.027 21.488 739.79 
78.025 21.589 739.77 
78.018 21.689 739.71 
78.011 21.787 739.63 
78.006 21.887 739.59 
78.002 21.985 739.55 
77.998 22.085 739.51 
77.992 22.184 739.46 
77.987 22.284 739.41 
77.986 22.385 739.4 
77.979 22.485 739.34 
77.974 22.585 739.29 
77.968 22.683 739.23 
77.964 22.782 739.2 
77.959 22.881 739.14 
77.954 22.98 739.1 
77.948 23.079 739.04 
77.944 23.178 739.01 
77.943 23.279 738.99 
77.94 23.378 738.97 
77.934 23.479 738.91 
77.931 23.58 738.88 
77.928 23.68 738.85 
77.924 23.779 738.82 
77.92 23.878 738.78 
77.918 23.977 738.76 
77.915 24.077 738.73 
77.912 24.177 738.7 
77.905 24.275 738.63 
77.901 24.375 738.59 
77.9 24.476 738.58 
77.898 24.577 738.57 
77.895 24.677 738.54 
77.891 24.776 738.5 
77.888 24.875 738.47 
77.885 24.975 738.44 
77.883 25.074 738.42 
77.88 25.174 738.39 
77.879 25.275 738.38 
77.876 25.375 738.36 
77.876 25.475 738.35 
77.874 25.576 738.34 
77.87 25.675 738.3 
77.868 25.775 738.28 
77.867 25.876 738.28 
77.867 25.976 738.27 
77.866 26.075 738.26 
77.863 26.175 738.23 
77.856 26.274 738.17 
77.856 26.374 738.16 
77.852 26.475 738.13 
77.85 26.575 738.11 
77.849 26.675 738.1 
77.848 26.775 738.09 
77.843 26.873 738.05 
77.84 26.971 738.02 
77.837 27.069 737.98 
77.838 27.17 738 
77.836 27.269 737.98 
77.899 32.441 738.57 
77.902 32.541 738.6 
77.904 32.641 738.62 
77.908 32.741 738.66 
77.913 32.843 738.71 
77.916 32.945 738.74 
77.918 33.046 738.76 
77.922 33.149 738.79 
77.927 33.252 738.84 
77.932 33.355 738.89 
77.937 33.457 738.93 
77.94 33.559 738.96 
77.943 33.662 738.99 
77.946 33.765 739.02 
77.951 33.867 739.07 
77.955 33.97 739.11 
77.96 34.074 739.15 
77.964 34.176 739.19 
77.966 34.278 739.21 
77.971 34.38 739.26 
77.978 34.484 739.32 
77.985 34.588 739.39 
77.99 34.691 739.44 
77.996 34.794 739.49 
78.002 34.898 739.55 
78.007 35.001 739.6 
78.012 35.104 739.65 
78.017 35.207 739.7 
78.023 35.31 739.75 
78.029 35.414 739.81 
78.034 35.518 739.86 
78.04 35.622 739.91 
78.046 35.725 739.97 
78.052 35.828 740.03 
78.056 35.93 740.07 
78.06 36.032 740.1 
78.062 36.133 740.13 
78.064 36.235 740.14 
78.069 36.343 740.19 
78.08 36.453 740.29 
78.092 36.559 740.41 
78.102 36.663 740.5 
78.112 36.766 740.59 
78.12 36.868 740.67 
78.126 36.97 740.73 
78.131 37.069 740.78 
78.384 39.534 743.18 
78.394 39.638 743.27 
78.404 39.743 743.36 
78.412 39.848 743.44 
78.426 39.956 743.57 
78.441 40.065 743.72 
78.454 40.172 743.84 
78.467 40.28 743.96 
78.483 40.389 744.12 
78.499 40.5 744.27 
78.515 40.609 744.42 
78.528 40.718 744.54 
78.548 40.83 744.73 
78.565 40.94 744.9 
78.584 41.05 745.07 
78.597 41.157 745.2 
78.579 16.648 744.06 
78.566 16.743 743.93 
78.551 16.839 743.79 
78.534 16.935 743.64 
78.521 17.033 743.51 
78.511 17.131 743.42 
78.498 17.23 743.29 
78.486 17.329 743.18 
78.475 17.427 743.08 
78.465 17.526 742.98 
78.455 17.624 742.88 
78.441 17.721 742.75 
78.426 17.818 742.61 
78.413 17.914 742.49 
78.291 19.314 741.33 
78.283 19.412 741.26 
78.275 19.509 741.18 
78.266 19.607 741.1 
78.258 19.706 741.02 
78.249 19.804 740.94 
78.242 19.903 740.87 
78.234 20.002 740.79 
78.224 20.101 740.7 
78.216 20.199 740.63 
78.208 20.298 740.54 
78.2 20.398 740.47 
78.193 20.498 740.41 
78.188 20.597 740.36 
78.182 20.696 740.3 
78.177 20.796 740.26 
78.172 20.895 740.21 
78.164 20.993 740.13 
78.157 21.092 740.07 
78.152 21.191 740.02 
78.144 21.29 739.94 
78.137 21.389 739.88 
78.131 21.489 739.82 
78.128 21.59 739.79 
78.121 21.69 739.72 
78.115 21.789 739.66 
78.11 21.887 739.62 
78.106 21.986 739.58 
78.102 22.086 739.54 
78.097 22.186 739.49 
78.092 22.285 739.45 
78.09 22.386 739.43 
78.083 22.484 739.36 
78.077 22.584 739.31 
78.07 22.683 739.24 
78.068 22.783 739.22 
78.063 22.882 739.17 
78.058 22.982 739.13 
78.051 23.08 739.06 
78.05 23.18 739.05 
78.046 23.28 739.01 
78.042 23.379 738.98 
78.036 23.479 738.92 
78.034 23.579 738.9 
78.03 23.68 738.86 
78.027 23.78 738.84 
78.023 23.878 738.79 
78.019 23.977 738.76 
78.017 24.077 738.74 
78.013 24.177 738.7 
78.008 24.276 738.65 
78.004 24.375 738.61 
78.003 24.476 738.61 
78 24.577 738.58 
77.997 24.678 738.55 
77.995 24.778 738.53 
77.992 24.877 738.5 
77.988 24.975 738.47 
77.986 25.076 738.45 
77.984 25.176 738.43 
77.981 25.276 738.4 
77.979 25.375 738.38 
77.977 25.476 738.36 
77.976 25.576 738.35 
77.976 25.677 738.35 
77.973 25.776 738.32 
77.971 25.877 738.3 
77.97 25.976 738.29 
77.97 26.076 738.29 
77.965 26.176 738.25 
77.96 26.275 738.2 
77.958 26.375 738.18 
77.955 26.476 738.15 
77.951 26.575 738.12 
77.949 26.675 738.1 
77.95 26.774 738.1 
77.946 26.873 738.07 
77.943 26.971 738.04 
77.939 27.069 738 
77.941 27.17 738.02 
78.002 32.443 738.6 
78.005 32.542 738.62 
78.008 32.642 738.66 
78.013 32.743 738.7 
78.017 32.845 738.74 
78.019 32.946 738.76 
78.021 33.047 738.78 
78.024 33.149 738.81 
78.028 33.251 738.84 
78.033 33.354 738.89 
78.037 33.457 738.93 
78.041 33.56 738.97 
78.045 33.663 739.01 
78.05 33.766 739.05 
78.055 33.869 739.1 
78.059 33.972 739.14 
78.064 34.075 739.18 
78.067 34.176 739.22 
78.07 34.278 739.24 
78.075 34.381 739.29 
78.081 34.485 739.35 
78.087 34.589 739.41 
78.093 34.693 739.46 
78.098 34.795 739.5 
78.104 34.898 739.56 
78.11 35.002 739.62 
78.114 35.105 739.65 
78.118 35.207 739.7 
78.125 35.311 739.76 
78.132 35.415 739.83 
78.138 35.519 739.89 
78.144 35.623 739.94 
78.15 35.726 740 
78.156 35.829 740.05 
78.161 35.931 740.1 
78.165 36.033 740.14 
78.167 36.132 740.16 
78.167 36.233 740.16 
78.172 36.343 740.21 
78.185 36.457 740.33 
78.198 36.563 740.46 
78.207 36.666 740.54 
78.216 36.768 740.62 
78.224 36.87 740.7 
78.231 36.972 740.77 
78.237 37.071 740.83 
78.487 39.533 743.19 
78.499 39.639 743.31 
78.508 39.744 743.39 
78.516 39.849 743.47 
78.529 39.956 743.59 
78.546 40.067 743.75 
78.559 40.175 743.87 
78.573 40.283 744 
78.586 40.39 744.13 
78.601 40.5 744.27 
78.618 40.61 744.43 
78.632 40.719 744.56 
78.652 40.831 744.76 
78.669 40.94 744.91 
78.686 41.05 745.08 
78.704 41.16 745.25 
78.681 16.648 744.07 
78.667 16.742 743.93 
78.652 16.839 743.79 
78.64 16.937 743.68 
78.627 17.034 743.55 
78.613 17.131 743.43 
78.6 17.23 743.3 
78.59 17.33 743.2 
78.58 17.429 743.11 
78.567 17.526 742.99 
78.554 17.623 742.87 
78.542 17.72 742.75 
78.528 17.817 742.62 
78.513 17.913 742.48 
78.391 19.314 741.32 
78.383 19.411 741.24 
78.376 19.508 741.18 
78.367 19.607 741.09 
78.361 19.707 741.04 
78.354 19.805 740.97 
78.346 19.903 740.9 
78.339 20.003 740.83 
78.33 20.102 740.75 
78.32 20.2 740.65 
78.311 20.298 740.57 
78.305 20.397 740.51 
78.299 20.498 740.45 
78.293 20.598 740.4 
78.288 20.698 740.35 
78.28 20.796 740.28 
78.274 20.896 740.22 
78.267 20.995 740.15 
78.258 21.092 740.07 
78.253 21.191 740.02 
78.248 21.291 739.97 
78.241 21.389 739.9 
78.234 21.489 739.84 
78.229 21.59 739.8 
78.224 21.69 739.75 
78.218 21.789 739.69 
78.214 21.887 739.65 
78.21 21.988 739.61 
78.207 22.088 739.59 
78.203 22.187 739.55 
78.198 22.286 739.5 
78.191 22.385 739.43 
78.187 22.485 739.39 
78.178 22.584 739.31 
78.172 22.683 739.25 
78.169 22.784 739.23 
78.167 22.884 739.21 
78.163 22.983 739.17 
78.157 23.082 739.11 
78.155 23.181 739.09 
78.15 23.28 739.04 
78.145 23.38 739 
78.138 23.479 738.93 
78.137 23.58 738.92 
78.135 23.68 738.9 
78.13 23.78 738.85 
78.126 23.879 738.82 
78.12 23.977 738.76 
78.117 24.077 738.74 
78.114 24.177 738.71 
78.111 24.277 738.68 
78.105 24.376 738.62 
78.103 24.477 738.6 
78.102 24.578 738.59 
78.101 24.679 738.58 
78.099 24.779 738.56 
78.095 24.877 738.52 
78.092 24.976 738.49 
78.091 25.077 738.49 
78.087 25.176 738.45 
78.085 25.276 738.43 
78.081 25.375 738.39 
78.08 25.476 738.38 
78.079 25.577 738.37 
78.077 25.678 738.35 
78.073 25.776 738.31 
78.072 25.876 738.3 
78.072 25.976 738.31 
78.07 26.076 738.29 
78.066 26.176 738.25 
78.063 26.275 738.22 
78.06 26.375 738.19 
78.059 26.476 738.18 
78.055 26.575 738.15 
78.053 26.675 738.13 
78.052 26.774 738.11 
78.048 26.872 738.08 
78.044 26.97 738.05 
78.041 27.069 738.01 
78.105 32.444 738.62 
78.108 32.543 738.64 
78.112 32.643 738.68 
78.116 32.744 738.72 
78.119 32.845 738.75 
78.121 32.947 738.77 
78.124 33.048 738.8 
78.127 33.149 738.83 
78.131 33.251 738.86 
78.135 33.354 738.9 
78.138 33.457 738.94 
78.143 33.56 738.97 
78.148 33.664 739.03 
78.153 33.767 739.07 
78.157 33.87 739.11 
78.162 33.972 739.16 
78.167 34.075 739.21 
78.171 34.177 739.24 
78.175 34.279 739.28 
78.179 34.382 739.32 
78.185 34.486 739.38 
78.191 34.591 739.43 
78.196 34.694 739.48 
78.201 34.797 739.52 
78.206 34.899 739.58 
78.212 35.003 739.63 
78.216 35.105 739.67 
78.22 35.207 739.71 
78.227 35.312 739.78 
78.235 35.416 739.85 
78.242 35.52 739.91 
78.248 35.624 739.97 
78.255 35.728 740.04 
78.261 35.831 740.09 
78.265 35.933 740.13 
78.269 36.034 740.17 
78.274 36.134 740.22 
78.281 36.238 740.28 
78.29 36.35 740.37 
78.3 36.463 740.46 
78.309 36.568 740.54 
78.316 36.669 740.61 
78.323 36.771 740.68 
78.329 36.872 740.74 
78.335 36.973 740.8 
78.342 37.073 740.87 
78.588 39.533 743.19 
78.602 39.639 743.32 
78.611 39.745 743.41 
78.622 39.851 743.51 
78.634 39.958 743.62 
78.65 40.068 743.77 
78.662 40.176 743.89 
78.677 40.284 744.03 
78.692 40.393 744.17 
78.707 40.502 744.32 
78.721 40.611 744.45 
78.737 40.721 744.6 
78.755 40.831 744.77 
78.772 40.941 744.93 
78.791 41.051 745.11 
78.809 41.161 745.28 
78.783 16.646 744.07 
78.77 16.743 743.94 
78.754 16.84 743.8 
78.743 16.937 743.69 
78.733 17.035 743.6 
78.718 17.132 743.46 
78.705 17.231 743.33 
78.693 17.33 743.22 
78.681 17.429 743.1 
78.67 17.527 743 
78.656 17.623 742.87 
78.642 17.72 742.74 
78.629 17.817 742.62 
78.614 17.911 742.48 
78.495 19.315 741.35 
78.485 19.411 741.25 
78.477 19.509 741.18 
78.471 19.608 741.12 
78.463 19.706 741.05 
78.453 19.804 740.96 
78.447 19.904 740.89 
78.442 20.003 740.85 
78.436 20.102 740.79 
78.427 20.2 740.7 
78.417 20.298 740.61 
78.409 20.398 740.54 
78.405 20.499 740.5 
78.398 20.599 740.43 
78.391 20.698 740.37 
78.384 20.797 740.3 
78.377 20.896 740.24 
78.373 20.996 740.2 
78.365 21.094 740.13 
78.358 21.192 740.05 
78.352 21.292 740 
78.344 21.39 739.92 
78.338 21.491 739.87 
78.333 21.591 739.82 
78.328 21.691 739.77 
78.321 21.789 739.71 
78.318 21.889 739.68 
78.314 21.989 739.64 
78.309 22.088 739.59 
78.303 22.187 739.54 
78.301 22.286 739.52 
78.295 22.385 739.46 
78.29 22.485 739.41 
78.282 22.584 739.34 
78.276 22.683 739.29 
78.273 22.784 739.26 
78.271 22.885 739.24 
78.266 22.984 739.19 
78.261 23.082 739.14 
78.256 23.182 739.09 
78.25 23.28 739.04 
78.245 23.38 738.99 
78.241 23.48 738.95 
78.239 23.581 738.93 
78.237 23.68 738.91 
78.233 23.78 738.88 
78.229 23.878 738.84 
78.223 23.977 738.79 
78.222 24.078 738.77 
78.219 24.178 738.74 
78.216 24.279 738.72 
78.212 24.378 738.68 
78.208 24.478 738.64 
78.203 24.578 738.59 
78.203 24.679 738.59 
78.2 24.778 738.56 
78.198 24.877 738.54 
78.197 24.977 738.53 
78.194 25.077 738.51 
78.191 25.177 738.48 
78.189 25.277 738.46 
78.183 25.376 738.41 
78.181 25.477 738.38 
78.179 25.577 738.37 
78.177 25.677 738.35 
78.174 25.776 738.32 
78.173 25.876 738.31 
78.173 25.977 738.31 
78.173 26.076 738.31 
78.167 26.176 738.26 
78.166 26.276 738.25 
78.162 26.375 738.21 
78.161 26.476 738.2 
78.16 26.576 738.19 
78.155 26.675 738.14 
78.153 26.774 738.12 
78.148 26.871 738.07 
78.145 26.969 738.04 
78.207 32.444 738.63 
78.21 32.544 738.66 
78.214 32.644 738.69 
78.218 32.745 738.73 
78.221 32.846 738.76 
78.224 32.947 738.79 
78.227 33.049 738.82 
78.231 33.15 738.85 
78.235 33.253 738.9 
78.239 33.356 738.93 
78.242 33.458 738.96 
78.246 33.561 739 
78.251 33.665 739.05 
78.256 33.768 739.09 
78.259 33.87 739.13 
78.264 33.973 739.17 
78.27 34.076 739.23 
78.275 34.178 739.27 
78.278 34.28 739.31 
78.283 34.384 739.35 
78.289 34.488 739.41 
78.295 34.592 739.46 
78.299 34.695 739.5 
78.303 34.797 739.54 
78.308 34.9 739.59 
78.313 35.003 739.63 
78.317 35.105 739.67 
78.322 35.208 739.72 
78.33 35.313 739.8 
78.338 35.417 739.87 
78.344 35.521 739.93 
78.35 35.626 739.98 
78.358 35.73 740.06 
78.365 35.832 740.12 
78.369 35.934 740.16 
78.374 36.036 740.21 
78.384 36.139 740.3 
78.398 36.246 740.43 
78.408 36.358 740.53 
78.414 36.467 740.59 
78.418 36.57 740.62 
78.423 36.67 740.67 
78.429 36.772 740.73 
78.435 36.874 740.79 
78.441 36.975 740.84 
78.45 37.076 740.93 
78.457 37.173 741 
78.683 39.431 743.12 
78.691 39.534 743.2 
78.703 39.639 743.32 
78.714 39.746 743.42 
78.725 39.852 743.53 
78.738 39.96 743.65 
78.753 40.068 743.79 
78.767 40.177 743.92 
78.781 40.285 744.06 
78.797 40.395 744.2 
78.813 40.505 744.36 
78.828 40.615 744.5 
78.843 40.724 744.64 
78.856 40.831 744.77 
78.873 40.941 744.93 
78.894 41.052 745.12 
78.915 41.163 745.32 
78.886 16.647 744.09 
78.874 16.744 743.97 
78.86 16.84 743.84 
78.849 16.938 743.74 
78.837 17.036 743.63 
78.822 17.133 743.48 
78.808 17.232 743.35 
78.795 17.33 743.22 
78.782 17.428 743.11 
78.772 17.526 743.01 
78.761 17.624 742.91 
78.751 17.722 742.81 
78.738 17.817 742.69 
78.724 17.911 742.56 
78.605 19.219 741.44 
78.597 19.316 741.36 
78.588 19.413 741.27 
78.58 19.51 741.19 
78.572 19.609 741.13 
78.565 19.708 741.05 
78.556 19.806 740.98 
78.551 19.905 740.93 
78.544 20.003 740.86 
78.537 20.102 740.79 
78.531 20.201 740.73 
78.523 20.3 740.66 
78.515 20.4 740.59 
78.509 20.5 740.53 
78.501 20.599 740.45 
78.493 20.698 740.38 
78.486 20.798 740.31 
78.479 20.897 740.25 
78.476 20.997 740.21 
78.469 21.094 740.15 
78.463 21.193 740.09 
78.455 21.293 740.02 
78.448 21.392 739.96 
78.441 21.492 739.89 
78.436 21.591 739.85 
78.432 21.691 739.8 
78.428 21.791 739.76 
78.422 21.89 739.71 
78.416 21.989 739.65 
78.413 22.089 739.62 
78.407 22.188 739.56 
78.402 22.288 739.52 
78.397 22.387 739.47 
78.392 22.487 739.42 
78.386 22.585 739.37 
78.379 22.684 739.31 
78.376 22.785 739.28 
78.374 22.885 739.25 
78.37 22.985 739.22 
78.364 23.083 739.16 
78.357 23.182 739.1 
78.352 23.281 739.05 
78.348 23.381 739.01 
78.344 23.481 738.97 
78.342 23.582 738.95 
78.339 23.682 738.93 
78.335 23.781 738.89 
78.333 23.88 738.87 
78.328 23.979 738.82 
78.326 24.08 738.8 
78.323 24.18 738.77 
78.318 24.279 738.73 
78.315 24.379 738.7 
78.311 24.479 738.66 
78.306 24.578 738.62 
78.305 24.678 738.6 
78.304 24.779 738.59 
78.303 24.878 738.59 
78.302 24.978 738.57 
78.299 25.079 738.55 
78.295 25.179 738.51 
78.291 25.278 738.47 
78.286 25.377 738.43 
78.283 25.477 738.4 
78.282 25.578 738.39 
78.281 25.678 738.38 
78.278 25.778 738.35 
78.277 25.878 738.34 
78.274 25.977 738.31 
78.273 26.077 738.31 
78.27 26.177 738.28 
78.268 26.276 738.25 
78.265 26.375 738.23 
78.265 26.476 738.23 
78.264 26.577 738.22 
78.259 26.675 738.17 
78.254 26.773 738.12 
78.25 26.87 738.09 
78.265 28.089 738.23 
78.31 32.445 738.65 
78.314 32.545 738.69 
78.317 32.645 738.72 
78.319 32.745 738.74 
78.323 32.846 738.77 
78.327 32.948 738.81 
78.33 33.05 738.84 
78.335 33.152 738.89 
78.339 33.255 738.93 
78.343 33.358 738.96 
78.347 33.461 739 
78.35 33.563 739.03 
78.354 33.666 739.07 
78.357 33.768 739.1 
78.362 33.871 739.14 
78.367 33.974 739.19 
78.373 34.077 739.24 
78.378 34.18 739.29 
78.381 34.281 739.32 
78.385 34.384 739.36 
78.391 34.488 739.42 
78.397 34.592 739.48 
78.401 34.695 739.51 
78.404 34.796 739.54 
78.409 34.899 739.59 
78.414 35.003 739.64 
78.419 35.106 739.68 
78.425 35.209 739.74 
78.433 35.314 739.82 
78.442 35.419 739.9 
78.448 35.523 739.95 
78.453 35.627 740 
78.46 35.731 740.07 
78.468 35.834 740.14 
78.473 35.936 740.19 
78.48 36.039 740.26 
78.492 36.145 740.37 
78.506 36.252 740.5 
78.515 36.361 740.59 
78.52 36.467 740.63 
78.522 36.569 740.65 
78.528 36.672 740.7 
78.534 36.774 740.77 
78.541 36.876 740.83 
78.548 36.978 740.9 
78.559 37.08 741 
78.569 37.179 741.1 
78.777 39.327 743.06 
78.783 39.429 743.11 
78.793 39.534 743.21 
78.805 39.64 743.32 
78.816 39.746 743.42 
78.83 39.854 743.55 
78.843 39.962 743.68 
78.858 40.071 743.82 
78.873 40.18 743.96 
78.886 40.287 744.08 
78.902 40.396 744.23 
78.915 40.505 744.36 
78.933 40.616 744.53 
78.949 40.726 744.68 
78.962 40.833 744.8 
78.974 40.94 744.92 
78.996 41.052 745.12 
79.019 41.164 745.34 
78.992 16.648 744.12 
78.978 16.743 743.99 
78.965 16.84 743.87 
78.952 16.938 743.75 
78.938 17.036 743.61 
78.924 17.134 743.48 
78.911 17.232 743.36 
78.899 17.33 743.25 
78.888 17.428 743.14 
78.875 17.525 743.03 
78.866 17.624 742.94 
78.856 17.722 742.85 
78.843 17.817 742.73 
78.83 17.909 742.6 
78.705 19.219 741.43 
78.701 19.317 741.39 
78.694 19.414 741.32 
78.685 19.512 741.24 
78.677 19.61 741.16 
78.671 19.71 741.1 
78.663 19.809 741.03 
78.657 19.907 740.97 
78.648 20.004 740.89 
78.643 20.103 740.84 
78.637 20.202 740.78 
78.628 20.301 740.7 
78.619 20.401 740.61 
78.61 20.5 740.53 
78.604 20.599 740.48 
78.596 20.698 740.39 
78.588 20.797 740.32 
78.583 20.897 740.28 
78.577 20.996 740.21 
78.572 21.095 740.17 
78.568 21.195 740.13 
78.561 21.295 740.07 
78.554 21.394 740 
78.547 21.493 739.94 
78.541 21.593 739.88 
78.536 21.692 739.83 
78.532 21.792 739.79 
78.526 21.892 739.74 
78.52 21.99 739.68 
78.514 22.089 739.62 
78.508 22.188 739.56 
78.502 22.288 739.51 
78.5 22.388 739.49 
78.494 22.487 739.44 
78.489 22.587 739.39 
78.483 22.686 739.33 
78.481 22.786 739.31 
78.479 22.887 739.29 
78.474 22.986 739.24 
78.466 23.084 739.17 
78.461 23.183 739.13 
78.456 23.282 739.08 
78.45 23.381 739.02 
78.446 23.482 738.99 
78.446 23.583 738.98 
78.442 23.682 738.94 
78.439 23.781 738.91 
78.436 23.882 738.89 
78.431 23.982 738.85 
78.429 24.081 738.83 
78.424 24.18 738.78 
78.421 24.28 738.75 
78.418 24.38 738.72 
78.415 24.48 738.7 
78.411 24.578 738.65 
78.408 24.679 738.62 
78.407 24.78 738.62 
78.406 24.879 738.6 
78.404 24.979 738.59 
78.401 25.079 738.56 
78.4 25.18 738.55 
78.395 25.279 738.51 
78.39 25.378 738.46 
78.388 25.478 738.44 
78.386 25.579 738.42 
78.385 25.679 738.41 
78.382 25.779 738.38 
78.38 25.878 738.36 
78.378 25.978 738.34 
78.376 26.078 738.32 
78.373 26.177 738.3 
78.372 26.277 738.29 
78.37 26.377 738.27 
78.369 26.477 738.26 
78.368 26.577 738.25 
78.362 26.674 738.2 
78.357 26.772 738.15 
78.366 27.989 738.23 
78.365 28.086 738.22 
78.414 32.446 738.68 
78.417 32.546 738.71 
78.421 32.646 738.74 
78.422 32.746 738.76 
78.424 32.846 738.78 
78.428 32.948 738.82 
78.433 33.05 738.86 
78.438 33.153 738.91 
78.443 33.257 738.95 
78.448 33.36 739 
78.452 33.463 739.04 
78.455 33.565 739.07 
78.457 33.667 739.08 
78.46 33.769 739.11 
78.465 33.872 739.16 
78.47 33.975 739.21 
78.476 34.078 739.27 
78.481 34.181 739.32 
78.484 34.283 739.34 
78.489 34.386 739.39 
78.494 34.489 739.44 
78.5 34.592 739.49 
78.504 34.695 739.53 
78.508 34.798 739.57 
78.513 34.901 739.62 
78.519 35.004 739.67 
78.524 35.108 739.72 
78.529 35.211 739.77 
78.536 35.315 739.83 
78.544 35.42 739.91 
78.55 35.524 739.96 
78.555 35.628 740.01 
78.563 35.731 740.09 
78.571 35.835 740.16 
78.578 35.938 740.22 
78.586 36.042 740.3 
78.598 36.148 740.41 
78.608 36.255 740.51 
78.615 36.361 740.57 
78.62 36.466 740.62 
78.624 36.569 740.66 
78.631 36.673 740.73 
78.639 36.776 740.8 
78.646 36.878 740.87 
78.654 36.981 740.95 
78.665 37.084 741.05 
78.677 37.185 741.16 
78.872 39.224 743 
78.878 39.327 743.06 
78.884 39.429 743.11 
78.895 39.533 743.21 
78.907 39.64 743.33 
78.919 39.747 743.44 
78.933 39.855 743.57 
78.948 39.963 743.71 
78.963 40.072 743.85 
78.977 40.18 743.98 
78.992 40.29 744.13 
79.005 40.397 744.25 
79.017 40.506 744.37 
79.033 40.616 744.52 
79.052 40.726 744.69 
79.068 40.836 744.85 
79.083 40.944 744.99 
79.105 41.057 745.19 
79.123 41.165 745.36 
79.093 16.648 744.12 
79.082 16.744 744.01 
79.068 16.84 743.88 
79.055 16.939 743.76 
79.041 17.037 743.63 
79.027 17.134 743.5 
79.014 17.232 743.38 
79.004 17.331 743.28 
78.994 17.429 743.19 
78.981 17.527 743.07 
78.971 17.626 742.97 
78.96 17.723 742.87 
78.949 17.817 742.77 
78.802 19.219 741.39 
78.801 19.317 741.38 
78.797 19.414 741.34 
78.789 19.513 741.26 
78.782 19.611 741.2 
78.774 19.71 741.12 
78.768 19.81 741.06 
78.759 19.907 740.98 
78.751 20.004 740.91 
78.746 20.104 740.86 
78.739 20.203 740.8 
78.729 20.302 740.7 
78.722 20.402 740.63 
78.715 20.501 740.57 
78.708 20.6 740.5 
78.701 20.699 740.44 
78.694 20.798 740.37 
78.689 20.899 740.32 
78.681 20.997 740.25 
78.676 21.096 740.2 
78.671 21.195 740.15 
78.666 21.295 740.1 
78.657 21.394 740.02 
78.65 21.493 739.95 
78.644 21.593 739.9 
78.64 21.693 739.86 
78.635 21.793 739.81 
78.63 21.892 739.77 
78.623 21.991 739.7 
78.615 22.089 739.63 
78.611 22.188 739.59 
78.607 22.289 739.55 
78.603 22.389 739.52 
78.601 22.49 739.49 
78.593 22.588 739.42 
78.588 22.687 739.37 
78.583 22.787 739.33 
78.58 22.887 739.29 
78.576 22.987 739.26 
78.572 23.085 739.22 
78.568 23.185 739.19 
78.564 23.284 739.14 
78.558 23.384 739.09 
78.552 23.483 739.03 
78.549 23.582 739 
78.545 23.682 738.97 
78.54 23.782 738.92 
78.538 23.882 738.9 
78.535 23.984 738.87 
78.532 24.083 738.85 
78.527 24.181 738.8 
78.526 24.28 738.79 
78.52 24.379 738.73 
78.518 24.48 738.71 
78.514 24.58 738.68 
78.512 24.681 738.66 
78.51 24.78 738.64 
78.507 24.88 738.61 
78.504 24.979 738.58 
78.502 25.079 738.56 
78.501 25.18 738.55 
78.498 25.279 738.53 
78.493 25.378 738.48 
78.492 25.479 738.47 
78.491 25.58 738.46 
78.488 25.68 738.43 
78.485 25.78 738.4 
78.482 25.879 738.38 
78.481 25.979 738.36 
78.479 26.079 738.35 
78.477 26.178 738.33 
78.474 26.278 738.3 
78.475 26.379 738.3 
78.472 26.478 738.28 
78.469 26.576 738.25 
